ply
format ascii 1.0
comment VCGLIB generated
element vertex 322
property float x
property float y
property float z
property float nx
property float ny
property float nz
property uchar red
property uchar green
property uchar blue
property uchar alpha
element face 0
property list uchar int vertex_indices
end_header
-0.0520716 -0.02846185 -0.00747144 -0.5096892 -0.7012526 -0.4984595 62 38 63 255 
-0.007545911 -0.04597843 -0.02514739 -0.8154612 -0.1396352 -0.5617162 23 109 55 255 
0.00525397 -0.03441609 0.05373086 -0.2794067 -0.1492247 0.9485061 91 108 248 255 
0.0230802 -0.001692638 0.05053564 0.1543223 0.7866463 0.5978062 147 227 203 255 
0.00226064 -0.03373917 -0.03765731 -0.1418326 -0.2541662 -0.9567043 109 95 5 255 
-0.03442072 -0.05216348 -0.00591869 -0.5775778 0.356026 -0.7346084 53 172 33 255 
-0.06341814 -0.005872563 0.03089845 -0.7684309 0.02368177 0.6394944 29 130 209 255 
-0.04778055 0.0561445 0.01427632 0.01924663 0.9986006 -0.04925986 129 254 121 255 
0.01186941 -0.06499165 0.0475024 0.08819103 -0.948201 0.305184 138 6 166 255 
-0.01401618 -0.02789873 -0.02082315 -0.892862 -0.2545787 -0.3714663 13 95 80 255 
0.04028447 -0.04865081 -0.02489538 0.425224 -0.4955271 -0.7573887 181 64 30 255 
-0.06094497 0.0390357 0.04735908 -0.4343387 0.5587306 0.7065197 72 198 217 255 
-0.02638017 -0.06639478 -0.00089435 0.0278309 -0.9994543 -0.0177922 131 0 125 255 
-0.003600191 0.0151382 -0.01557739 -0.08863275 0.6742807 -0.733137 116 213 34 255 
0.02529296 -0.03199397 0.05567049 0.1779017 -0.03990386 0.9832389 150 122 252 255 
-0.07233192 0.02523889 0.00915895 -0.9330785 0.0641715 -0.3539021 8 135 82 255 
-0.04278668 0.0127419 -0.01360544 -0.3820715 0.4409216 -0.8121635 78 183 23 255 
0.03162084 0.0154897 -0.01638568 0.2725916 0.4710093 -0.8389542 162 187 20 255 
0.01049359 -0.06164736 0.01557066 0.006586624 -0.9999675 0.00465083 128 0 128 255 
-0.06911033 0.03851389 0.03765878 -0.9176167 0.2702293 0.2914715 10 161 164 255 
-0.04790277 -0.01218277 0.04352699 -0.4438742 0.008126665 0.8960523 70 128 241 255 
-0.058022 -0.02900484 0.02132215 -0.7176078 -0.6559814 0.2339391 36 43 157 255 
-0.06235405 -0.01912368 -0.00240389 -0.8358821 -0.3974924 -0.3785512 20 76 79 255 
-0.03656035 -0.05164446 0.03660705 -0.3064712 0.9480827 0.08493839 88 248 138 255 
-0.03181526 0.0639258 0.00174888 -0.6061714 0.7743424 0.1815221 50 226 150 255 
-0.01316439 -0.06639346 -0.02972188 -0.07625279 -0.9049463 -0.4186378 117 12 74 255 
0.07280185 -0.05346006 0.01042772 0.657635 -0.7493775 -0.07713299 211 31 117 255 
0.01537527 -0.04224035 0.05399071 -0.0807591 -0.2753676 0.9579409 117 92 249 255 
-0.01760649 0.02422599 0.02431353 0.04539584 0.878856 0.4749225 133 239 188 255 
-0.01153583 -0.05525959 -0.02807941 -0.1323819 0.5923295 -0.7947458 110 203 26 255 
0.06440853 -0.03024114 0.00094765 0.8288949 0.1090621 -0.54867 233 141 57 255 
0.00888675 -0.06170971 -0.01564636 -0.07644844 -0.8157403 0.5733442 117 23 200 255 
0.006008389 0.0196257 0.03625154 -0.2556543 0.6323536 0.7312797 94 208 220 255 
-0.02668618 -0.04542928 0.03758737 -0.6283149 0.06103666 0.7755612 47 135 226 255 
0.042832 -0.03291743 -0.02629751 0.6070482 -0.1284274 -0.7842187 204 111 27 255 
0.005153799 -0.06492907 -0.0260719 0.1912923 -0.533911 -0.8236179 151 59 22 255 
0.04699676 -0.04868222 0.03875204 0.4775488 -0.3330358 0.8130401 188 85 231 255 
-0.04366497 -0.03395216 0.03182808 -0.3178006 -0.792042 0.5212219 86 26 193 255 
0.01374535 0.001216501 0.04432203 -0.0242014 0.7151378 0.6985644 124 218 216 255 
0.0369816 0.02715 0.02293149 0.3990672 0.8766257 0.2688363 178 239 161 255 
0.01064305 -0.01457627 -0.03811254 0.1441883 0.1921162 -0.970722 145 151 3 255 
0.05534987 -0.05874295 -0.00280751 0.2300733 -0.6439391 -0.7296634 156 45 34 255 
0.006965109 0.0100286 -0.02016117 -0.09015673 0.5402982 -0.83663 116 196 20 255 
0.01721272 0.005775295 -0.02245903 0.1542455 0.2154187 -0.964263 147 154 4 255 
0.06271912 -0.06002293 0.00893216 0.4571456 -0.8868663 -0.06697903 185 14 118 255 
-0.0520836 0.0496555 -0.03926586 -0.5212969 -0.8004425 -0.2958738 61 25 89 255 
0.07266309 -0.05232638 0.02120127 0.6300831 -0.6885311 0.3590546 207 39 173 255 
0.03930501 -0.02098213 -0.02774399 0.4356068 0.05360481 -0.8985395 183 134 12 255 
-0.00121695 0.0588794 -0.00469237 0.6065771 -0.4688314 0.6420759 204 67 209 255 
-0.04920905 -0.06454519 0.01204214 -0.7404424 -0.2899222 0.6063746 33 90 204 255 
0.07000082 -0.03838793 -0.00346499 0.1907973 0.4481397 -0.8733655 151 184 16 255 
-0.019222 -0.0636738 0.0107899 -0.4027429 -0.7105774 0.5769559 76 36 201 255 
0.0408979 -0.0640629 0.0087849 -0.403146 -0.8698742 0.2842397 76 16 163 255 
-0.04402805 -0.002161331 0.04256533 -0.2192438 0.2578379 0.9409845 99 160 247 255 
0.05303009 -0.01621836 0.04163693 0.6357943 -0.02138288 0.7715623 208 124 225 255 
0.01829666 -0.0521808 -0.02992893 0.117342 -0.514594 -0.8493668 142 61 19 255 
0.04174732 0.0211846 0.03087881 0.4381647 0.7023507 0.5609947 183 217 199 255 
0.06594182 -0.05186118 -0.00387157 0.4503121 -0.5434322 -0.7084493 184 58 37 255 
-0.05436281 -0.02756295 0.03143004 -0.613573 -0.6137392 0.4968426 49 49 190 255 
-0.04906618 -0.06628238 -0.00019761 -0.1854974 -0.9822465 -0.02797343 103 2 123 255 
0.03717677 -0.02693377 0.0518266 0.4203647 -0.2336487 0.8767564 181 97 239 255 
0.00791696 0.0221923 -0.00971209 -0.227646 0.7644168 -0.6031951 98 224 50 255 
0.04565853 -0.02944954 0.04453993 0.6436013 -0.2045792 0.7375125 209 101 221 255 
0.05304458 0.007662497 0.03191615 0.7063198 0.4087152 0.577983 217 179 201 255 
-0.03511138 -0.02531216 0.04193974 -0.05852421 -0.4880623 0.8708445 120 65 238 255 
-0.06294282 -0.006708302 -0.00618563 -0.8007622 0.07401702 -0.5943916 25 136 51 255 
-0.0437824 0.0103727 0.03757979 0.103798 0.1321971 0.9857738 140 144 253 255 
0.06516144 -0.02896962 0.02253069 0.8095952 0.3343751 0.4824406 230 170 189 255 
-0.01158981 -0.06440768 -0.01920415 0.1894008 -0.7340143 0.652189 151 33 210 255 
-0.0332105 -0.0664147 0.013987 0.06113258 -0.9977891 -0.02607298 135 0 124 255 
0.03367761 0.0296726 0.00693274 0.3340723 0.9359726 -0.1111348 170 246 113 255 
-0.05758718 0.0771788 -0.05022109 -0.9163393 0.1470834 -0.3724094 10 146 80 255 
0.06028164 -0.02736287 -0.0092881 0.8255988 0.004867638 -0.5642366 232 128 55 255 
0.07641273 -0.03234007 0.02396932 0.6314964 0.4477296 0.6330486 208 184 208 255 
-0.05526049 0.04938609 0.03917598 -0.1372162 0.8046085 0.5777343 110 230 201 255 
-0.04274451 0.0639753 -0.05939828 0.3255413 -0.5040227 -0.79999 169 63 25 255 
0.06420381 -0.01479574 -0.00211705 0.9589698 -0.02307536 -0.2825679 249 124 91 255 
-0.0154537 0.0124477 0.03505541 -0.0119674 0.5672213 0.8234785 125 199 232 255 
0.0018401 -0.0606777 0.0394029 0.02541696 -0.9967036 0.07704622 130 0 137 255 
-0.07226899 0.0147516 0.01701738 -0.8253267 -0.5629606 0.04371689 22 55 133 255 
0.04197754 -0.05714467 -0.01453623 0.8001167 -0.5252232 -0.289748 229 60 90 255 
-0.0336167 -0.01465315 0.04533247 -0.07077028 -0.03012097 0.9970378 118 123 254 255 
0.05014532 -0.013716 -0.02040814 0.5310088 0.09977419 -0.8414718 195 140 20 255 
0.00624623 -0.04813494 -0.03224348 -0.1113061 -0.4431576 -0.8895068 113 70 14 255 
-0.00490159 0.0121114 0.03756024 -0.2596322 0.5699247 0.7796006 94 200 226 255 
0.05347585 -0.06355266 0.01626696 0.2940395 -0.9412211 0.1662633 164 7 148 255 
-0.0008142795 -0.06159904 0.02786843 0.01643539 -0.998061 0.06003502 129 0 135 255 
-0.00169269 -0.06173399 0.00451008 0.02001097 -0.9995655 -0.02164382 130 0 124 255 
-0.04327489 0.0524573 -0.03222173 0.8456075 -0.4873992 -0.2176928 235 65 99 255 
-0.004078871 -0.0320933 0.04517837 -0.8209034 -0.275399 0.5002731 22 92 191 255 
-0.01097877 -0.02297914 -0.03281649 -0.808019 -0.1322128 -0.5741298 24 110 54 255 
-0.05665521 0.05509769 0.00796863 -0.2363992 0.9638632 -0.1228137 97 250 111 255 
-0.00859602 0.0190116 0.02988817 -0.2031734 0.7745498 0.5989936 101 226 203 255 
0.06131877 -0.0005032644 0.02427575 0.9051798 0.3200769 0.2796432 242 168 163 255 
-0.03592825 -0.0640827 0.0463761 -0.06089453 -0.5817544 0.8110818 119 53 230 255 
0.06378536 -0.0511963 0.03134342 0.3472371 -0.4646904 0.8145486 171 68 231 255 
0.02003092 0.0231575 0.03474966 0.03160397 0.7026747 0.710809 131 217 218 255 
0.01113084 -0.004599743 0.05444598 -0.08809829 0.6388627 0.7642599 116 208 224 255 
0.01812665 0.0159391 -0.01716943 -0.148792 0.6081777 -0.7797313 108 205 28 255 
-0.04105166 -0.05560777 0.01242194 -0.3913462 0.7819961 0.4851085 77 227 189 255 
0.02721296 0.0272196 -0.00520737 0.1093959 0.8585132 -0.5009867 141 236 63 255 
0.01675208 -0.02428931 0.05871464 0.02476626 0.0261993 0.99935 130 130 254 255 
0.01969155 -0.06453753 0.00826072 -0.5743833 -0.8086502 -0.1271562 54 24 111 255 
0.03040602 -0.0408376 0.05248437 0.3943162 -0.1839713 0.9003718 177 104 242 255 
-0.06162747 -0.02652939 0.01116169 -0.8344812 -0.5500564 0.0328506 21 57 131 255 
-0.00437993 -0.004133552 0.04443453 -0.401621 0.3542421 0.8445195 76 172 235 255 
0.06111812 -0.002508745 -0.00397567 0.8631918 0.3091861 -0.3991287 237 166 76 255 
0.02185499 -0.01530721 -0.0348385 0.359672 0.1398532 -0.9225385 173 145 9 255 
-0.05912672 0.006198801 0.0320507 -0.7695321 0.07122842 0.6346234 29 136 208 255 
0.01936636 -0.05280694 0.0491369 -0.07019321 -0.7389547 0.6700888 118 33 212 255 
0.03172754 -0.01198922 -0.03086011 0.4072954 0.1530153 -0.900387 179 147 12 255 
-0.00410695 0.08380889 -0.01154476 -0.1241382 0.8506974 0.5107874 111 235 192 255 
-0.05973935 0.03606849 -0.00414821 -0.5861095 0.1693762 -0.7923304 52 149 26 255 
-0.06876054 -0.002962559 0.02107904 -0.9580827 0.1165873 0.2616961 5 142 160 255 
-0.05411355 -0.0005574822 0.03833771 -0.5465617 0.2466667 0.8002661 57 158 229 255 
-0.0338318 0.0498169 0.02506661 0.9330159 0.2082306 0.2934645 246 154 164 255 
-0.0136564 -0.0656559 0.0369141 -0.01588281 -0.9992868 0.03425797 125 0 131 255 
-0.05250553 0.0545953 0.02958883 -0.07653347 0.9558508 0.2837112 117 249 163 255 
-0.0002253409 -0.02290481 -0.03904429 -0.08693439 -0.04042535 -0.9953935 116 122 0 255 
-0.02435401 -0.02662778 -0.01787443 -0.1792856 -0.2840947 -0.9418848 104 91 7 255 
-0.01335978 0.069864 -0.01544899 -0.4940365 0.1057661 -0.8629841 64 140 17 255 
0.03983851 -0.003481112 -0.02278588 0.2847632 0.298866 -0.9108178 163 165 11 255 
0.04400026 0.0246876 0.01551793 0.5586662 0.8283454 0.04166415 198 233 132 255 
-0.05259859 -0.002237283 -0.01443451 -0.4372073 0.2423639 -0.8660886 71 158 17 255 
-0.02784354 0.0221506 0.02883316 0.7588136 0.1531439 0.6330473 224 147 208 255 
-0.03184771 -0.06552973 0.03463518 0.01585076 -0.9995935 0.02369741 129 0 130 255 
-0.04819241 0.0743983 -0.04536587 0.5597109 0.7338155 0.3850178 198 221 176 255 
-0.02785945 0.0116273 -0.01748212 0.05300569 0.4360424 -0.8983638 134 183 12 255 
-0.04671365 0.0535882 -0.0490971 0.4344572 -0.7974163 -0.4187771 182 25 74 255 
-0.02596674 0.009051502 0.03875411 0.01408592 0.5619328 0.827063 129 199 232 255 
0.04368212 -0.06023746 0.03714876 0.7260805 -0.5873238 0.3575723 220 52 173 255 
0.05882938 -0.04016017 -0.00642525 0.8363506 -0.292714 -0.4635043 234 90 68 255 
0.04219292 -0.06322468 -0.00209193 0.4836288 -0.7797952 -0.3975207 189 28 76 255 
0.0351103 -0.04018016 -0.02864575 0.3067633 -0.08028477 -0.9483938 166 117 6 255 
-0.07182203 0.0274735 0.03645865 -0.9606183 0.2722713 0.05550578 5 162 134 255 
-0.005809911 -0.01111041 -0.03508225 -0.5202954 0.4939229 -0.6966584 61 190 38 255 
-0.04406724 -0.009827815 -0.01885552 -0.254614 0.06828824 -0.9646287 95 136 4 255 
0.02288879 -0.06536375 0.01884977 -0.2976148 -0.9322662 0.2056824 89 8 153 255 
-0.00942832 -0.006833382 -0.02493186 -0.4261408 0.3996742 -0.8115816 73 178 24 255 
-0.05087229 0.0161164 -0.00795637 -0.3441233 0.02063448 -0.9386978 83 130 7 255 
0.06106544 -0.009539299 0.02988862 0.8725379 0.1392247 0.4682887 238 145 187 255 
-0.03149269 0.0379639 0.02366218 0.8305613 0.4585063 0.3161325 233 185 167 255 
-0.07224075 0.0181684 0.04120173 -0.8945479 -0.2960578 0.334864 13 89 170 255 
0.06287905 0.0009377971 0.00947532 0.9296557 0.3680492 0.01673788 246 174 129 255 
-0.03420137 0.0145173 0.03484399 0.2798435 0.2810639 0.9179819 163 163 244 255 
0.02615083 -0.01659376 0.0564635 0.2773749 -0.07970773 0.9574497 162 117 249 255 
-0.06740506 0.005939901 0.01364592 -0.9504259 0.3105751 -0.01528481 6 167 125 255 
0.01881732 -0.04050758 -0.03336092 0.222002 -0.2669216 -0.9377996 155 93 7 255 
0.01695288 0.0291945 -0.0010688 -0.08293119 0.9404415 -0.329685 116 247 85 255 
0.05016869 0.0004868954 0.03940471 0.5916065 0.4753214 0.6512077 202 188 210 255 
0.02591057 0.0314093 0.01682375 0.06169239 0.9930971 0.09976131 135 254 140 255 
-0.02150371 0.0674851 0.00327659 0.111638 0.464559 0.8784771 141 186 239 255 
-0.0433133 0.06503259 -0.03289512 0.8741226 0.4720208 0.1144823 238 187 142 255 
-0.04464419 -0.03827677 0.00022552 -0.319767 -0.9067199 -0.2749694 86 11 92 255 
-0.06615362 0.0273561 0.04856396 -0.718118 0.0705881 0.6923323 35 136 215 255 
0.01407495 -0.03048437 -0.03593348 0.224339 -0.1755831 -0.9585628 156 105 5 255 
-0.04237434 -0.05985391 -0.00740402 -0.3649021 0.4202186 -0.8308206 80 181 21 255 
0.01917552 -0.004834883 -0.03205632 0.1912323 0.6869711 -0.7010712 151 215 38 255 
-0.0637022 0.0222638 -0.00373014 -0.5189602 -0.1744567 -0.8368065 61 105 20 255 
-0.00627316 -0.02236884 0.04835618 -0.8144691 -0.3603252 0.4547591 23 81 185 255 
-0.06122144 -0.01899675 0.03125584 -0.7608311 -0.3891318 0.5193385 30 77 193 255 
-0.03231444 0.0215965 -0.01079806 -0.2039933 0.670791 -0.7130401 101 213 36 255 
-0.003854331 0.06164529 -0.01450419 0.02809849 -0.7038949 -0.7097482 131 37 37 255 
-0.0604691 0.0135796 0.04664344 -0.2867978 -0.5430045 0.7892358 90 58 228 255 
-0.06523661 0.0107736 0.02453767 -0.7343365 -0.6103477 0.2970281 33 49 165 255 
0.005830299 0.0276789 0.00130805 -0.2191357 0.9373567 -0.2708173 99 247 92 255 
0.0178548 0.0114329 0.04243662 0.0183846 0.3415139 0.9396969 129 171 247 255 
-0.04216506 0.0566685 -0.01783776 0.9529161 0.2492083 0.1727605 248 159 149 255 
-0.0742377 0.0261542 0.02220145 -0.9831908 0.1535794 0.09873893 2 147 140 255 
0.05068489 -0.02427313 -0.02077809 0.6813782 -0.01550705 -0.7317672 214 125 34 255 
-0.0218955 -0.0663317 0.02694 -0.02964521 -0.9989515 0.0348881 123 0 131 255 
-0.01280004 0.05948699 0.00219628 0.2193742 0.6290748 0.7457479 155 207 222 255 
0.04410872 -0.0155074 0.04829231 0.5330794 0.1313939 0.8358002 195 144 234 255 
0.04913055 0.0202744 0.00611175 0.6450621 0.7544618 -0.1211708 209 223 112 255 
0.05320562 -0.04897935 -0.00723825 0.4609006 -0.4318864 -0.7752708 186 72 28 255 
0.005748269 -0.06135197 -0.00430304 0.02883651 -0.9992959 -0.0240033 131 0 124 255 
-0.0455936 0.07665709 -0.06050473 -0.4436098 0.06944884 -0.8935251 70 136 13 255 
-0.04976057 0.0344285 0.04826522 0.6228321 0.2784549 0.7311246 206 163 220 255 
-0.03860331 0.04637239 0.0338088 0.7903197 -0.01027879 0.6126085 228 126 205 255 
-0.06726518 -0.007889971 0.0042059 -0.9478574 0.01907584 -0.3181234 6 129 86 255 
-0.04683903 -0.03782949 0.02157684 -0.3806784 -0.8565301 0.3484827 78 18 171 255 
-0.003459491 0.0261539 0.01661377 -0.288335 0.9408131 0.1781394 90 247 150 255 
-0.02293064 0.0292844 0.00927007 0.4047512 0.9139532 -0.02942972 179 244 123 255 
-0.01260575 -0.0387354 -0.01545301 -0.8629829 -0.3156234 -0.3945154 17 87 77 255 
-0.03860408 -0.06653777 -0.00021667 -0.003534868 -0.9999745 -0.006211615 127 0 126 255 
-0.01922792 -0.0008153692 -0.02191272 -0.08526244 0.2334257 -0.9686294 116 157 3 255 
-0.0180666 -0.0614814 -0.00730796 0.3894157 -0.9048649 0.1719738 177 12 149 255 
0.002272459 -0.06371047 0.05222225 0.2381272 -0.5420927 0.8058727 157 58 230 255 
0.02524969 -0.0604929 0.0332712 -0.1595636 -0.9866704 0.03195349 107 1 131 255 
-0.01287552 -0.04832237 -0.01088865 -0.5817646 0.3913745 -0.7130049 53 177 36 255 
0.07630521 -0.03223009 0.0026525 0.5384052 0.4783238 -0.6937768 196 188 39 255 
-0.02375572 0.0477341 -0.00214332 0.2483217 -0.8410046 -0.4806742 159 20 66 255 
-0.05116895 0.0474016 -0.02759094 -0.2724383 -0.9432216 -0.1900278 92 7 103 255 
-0.00984291 -0.05321772 0.04774692 -0.5072497 0.7045959 0.4962281 62 217 190 255 
-0.0065805 -0.0622574 0.0157053 0.8591092 -0.5078593 -0.06332822 237 62 119 255 
0.00913379 0.026917 0.02757544 -0.2596911 0.8655382 0.4282572 94 237 182 255 
-0.05527265 0.026801 -0.00802417 -0.3050901 0.01685604 -0.9521744 88 129 6 255 
0.01503869 -0.0606351 0.0367022 0.02310886 -0.9972498 0.07041895 130 0 136 255 
0.00131432 0.0868962 -0.0202487 -0.3689398 0.8964389 -0.2455214 80 241 96 255 
-0.04554542 -0.02556963 0.03916807 -0.344233 -0.511158 0.7875412 83 62 227 255 
0.03341438 -0.006926261 0.05146775 0.3749553 0.4641967 0.8024525 175 186 229 255 
-0.05492414 0.05273011 -0.01939744 -0.9560508 0.2841021 -0.07247763 5 163 118 255 
-0.06751122 0.05061501 0.01015246 -0.7009 0.5387641 -0.4674105 38 196 67 255 
-0.02426579 -0.06633634 -0.02191442 -0.3806587 -0.9086692 -0.17152 78 11 105 255 
-0.05697576 -0.01706406 -0.01145063 -0.713904 -0.2759475 -0.6435792 36 92 45 255 
-0.03091096 0.0007456988 -0.02161943 -0.1076578 0.2371621 -0.9654863 113 157 4 255 
-0.0195199 0.0738586 -0.00757526 -0.612257 0.7530119 -0.2410694 49 223 96 255 
-0.02276416 0.0572749 0.00520162 0.3691378 0.5406035 0.7559664 174 196 223 255 
0.05432588 0.0119331 -0.00224065 0.7623991 0.5698853 -0.306559 224 200 88 255 
0.0168895 -0.06105381 -0.00277939 0.002020479 -0.9992822 -0.03782864 127 0 122 255 
-0.00375686 -0.06141425 -0.01109327 0.01510617 -0.9998288 -0.0106936 129 0 126 255 
0.04190239 -0.03912403 0.04728236 0.5488591 -0.04560498 0.83467 197 121 233 255 
0.03014979 -0.05074146 -0.02775059 0.1864343 -0.4564451 -0.8700001 151 69 16 255 
-0.03170416 -0.06237964 -0.01176345 -0.2400237 0.2390415 -0.9408761 96 157 7 255 
0.05190934 -0.03534295 -0.01847341 0.6450195 -0.113336 -0.7557148 209 113 31 255 
0.0006786399 -0.007876113 0.05382065 -0.4184352 0.5192158 0.7452027 74 193 222 255 
-0.03183005 -0.05143127 0.02164703 -0.855266 0.330952 -0.3987366 18 169 76 255 
0.04872312 -0.002056785 -0.01749735 0.5554586 0.3229025 -0.7662896 198 168 29 255 
-0.06149667 0.054731 0.01969734 -0.2636529 0.9630439 0.05507804 93 250 134 255 
-0.01879109 -0.01476729 -0.0219176 -0.2897902 -0.2692609 -0.9184336 90 93 10 255 
0.004184559 0.07504939 -0.01865416 0.554904 0.2947282 0.7779568 198 165 226 255 
0.06445013 -0.0181531 0.02455292 0.9430646 0.02845011 0.3313904 247 131 169 255 
-0.0135409 -0.06365738 0.04908996 -0.6004291 -0.4567752 0.6563851 50 69 211 255 
-0.04713216 0.05709449 -0.0062032 0.6359704 0.689578 0.3464448 208 215 171 255 
-0.0250084 -0.03727606 -0.01339045 -0.1078603 -0.3136039 -0.943408 113 87 7 255 
0.03840092 0.0214551 -0.00768042 0.3997034 0.7584984 -0.5147012 178 224 61 255 
0.0674469 -0.02630859 0.01243002 0.6423537 0.7658871 -0.02826267 209 225 123 255 
-0.03820313 0.0327098 0.03691868 0.4445857 0.5125313 0.7346123 184 192 221 255 
0.05440018 0.005029999 -0.01022492 0.6659098 0.4415647 -0.6013191 212 183 50 255 
-0.009047201 0.0255634 0.00776177 0.02755896 0.9952329 -0.09355178 131 254 115 255 
0.006530969 0.06299359 -0.01200002 0.8364335 -0.1422397 0.5292891 234 109 194 255 
0.07667175 -0.04302918 0.02429192 0.800789 -0.2543711 0.5422476 229 95 196 255 
-0.04048358 0.0556797 0.00433438 -0.5588055 0.8009888 -0.2148336 56 229 100 255 
-0.01158211 0.06641849 -0.005732 0.5327351 0.2843736 0.7970728 195 163 229 255 
-0.03242017 0.053101 0.01292737 0.5576623 0.6237616 0.5476626 198 207 197 255 
-0.06836645 0.0136186 0.00582278 -0.7352734 -0.5200709 -0.4346255 33 61 72 255 
-0.05979064 0.0035166 -0.00662754 -0.6834427 0.2858178 -0.6717249 40 163 41 255 
0.0588831 -0.05896702 0.02497657 0.3519525 -0.8332573 0.4263939 172 21 181 255 
-0.02843435 0.0375497 0.01324498 0.9352636 0.3492011 0.05779772 246 172 134 255 
-0.04392088 0.02774239 -0.00854946 0.1359063 0.08556283 -0.98702 144 138 1 255 
-0.00373002 0.001861602 -0.0238364 -0.03679133 0.1956474 -0.9799839 122 152 2 255 
-0.02281898 0.06220181 -0.01033751 -0.5253481 0.001885406 -0.8508853 60 127 19 255 
-0.01144964 0.0546046 -0.00768023 0.2531331 -0.8614075 -0.4403416 159 17 71 255 
-0.04289681 0.0469478 -0.01309862 0.9311693 -0.3267322 -0.1617707 246 85 106 255 
-0.01740303 0.0115078 -0.01824331 -0.02241013 0.4835287 -0.8750416 124 189 15 255 
-0.05388009 0.02091639 0.0533958 -0.1436175 -0.09486273 0.9850762 109 115 253 255 
0.05717654 0.010644 0.01881133 0.8361068 0.5368558 0.1127442 234 195 141 255 
0.08072897 -0.0341934 0.01397483 0.9912964 0.1299422 0.02113308 253 144 130 255 
-0.01705379 0.02715089 0.00035474 0.2738043 0.9404704 -0.201362 162 247 101 255 
-0.03706936 -0.04557562 0.00233955 -0.9946575 0.08287337 -0.06155067 0 138 119 255 
0.04031915 0.0004196018 0.04576052 0.3547468 0.4235974 0.8334987 172 181 233 255 
0.03395035 -0.06512 -0.01861287 0.3663475 -0.8661812 -0.339882 174 17 84 255 
-0.01521833 -0.03144017 0.04138147 0.2801585 -0.1138673 0.9531765 163 112 249 255 
-0.03782263 -0.03046199 -0.01441647 -0.1311846 -0.6818298 -0.7196518 110 40 35 255 
-0.04750436 0.0142409 0.04803605 0.5627228 -0.6918749 0.4523851 199 39 185 255 
-0.00654033 -0.034916 -0.03166487 -0.706727 -0.3057308 -0.6380169 37 88 46 255 
0.04008123 -0.0648273 0.02801877 0.2271276 -0.9688133 0.09906454 156 3 140 255 
-0.03034241 0.055462 -0.00519277 -0.5019326 -0.1009867 -0.8589909 63 114 17 255 
0.00308875 -0.04815645 0.04845932 -0.497683 -0.3595227 0.7893385 64 81 228 255 
-0.06914645 0.03650499 0.02595278 -0.9865897 0.1205656 0.110022 1 142 141 255 
0.01130396 0.0729159 -0.02670877 0.9267912 -0.2017398 -0.3167951 245 101 87 255 
-0.01358207 0.003839098 0.04073799 -0.1941628 0.4743368 0.858665 102 187 236 255 
-0.02654958 -0.03234787 0.03963579 -0.4373758 -0.3174684 0.8413776 71 87 234 255 
-0.04791482 -0.01986371 -0.0171282 -0.4055075 -0.2413557 -0.8816525 75 96 15 255 
-0.04375729 0.002511397 -0.0174844 -0.3771261 0.191235 -0.9062037 79 151 11 255 
0.03504821 -0.05424416 0.04379387 0.3562469 -0.04340164 0.9333833 172 121 246 255 
0.0319662 -0.0656646 -0.00595713 -0.03597346 -0.9991463 -0.02031318 122 0 124 255 
0.00990913 -0.001770355 -0.02773136 -0.09243688 0.9033902 -0.4187382 115 242 74 255 
0.03965917 0.0123622 0.03754527 0.2802407 0.4758741 0.833672 163 188 233 255 
-0.05115651 0.0633513 -0.04536053 -0.938532 -0.158929 -0.30643 7 107 88 255 
0.02329066 -0.06416653 0.04602461 0.1772403 -0.5608094 0.8087513 150 55 230 255 
-0.05713489 0.05151229 -0.0055823 -0.9784505 0.09567711 -0.1829768 2 139 104 255 
-0.03399304 0.0449866 -0.00110934 0.2462053 -0.1441286 -0.9584414 158 109 5 255 
-0.01951765 -0.02187222 0.04291862 0.007165966 -0.1013695 0.9948231 128 114 254 255 
-0.05354845 0.0612082 -0.03528842 -0.8677889 -0.4044572 -0.2887161 16 75 90 255 
0.06618356 -0.03808989 0.0302234 -0.1389692 0.4956979 0.8573046 109 190 236 255 
-0.06836094 0.0499671 0.02604417 -0.6847111 0.6427315 0.3436087 40 209 171 255 
-0.05111297 -0.03724853 0.00879955 -0.5829061 -0.8069096 -0.0954857 53 24 115 255 
-0.01984279 0.0215611 -0.01157031 0.2249076 0.6100321 -0.7597878 156 205 30 255 
-0.00616057 0.0230999 -0.00447355 -0.04837236 0.9288129 -0.3673782 121 245 80 255 
0.02225443 -0.06358846 -0.01478397 -0.2319928 -0.6270999 0.7435893 97 47 222 255 
-0.01323891 -0.01142642 0.04369704 -0.1465433 -0.2674143 0.9523731 108 93 248 255 
-0.03267578 -0.01177926 -0.0218863 -0.02297756 -0.07998029 -0.9965316 124 117 0 255 
-0.005867081 -0.04331079 0.03918224 -0.7732966 -0.02886803 0.6333869 28 123 208 255 
0.06591853 -0.01296378 0.00842363 0.9962866 0.08365443 -0.02037194 254 138 124 255 
0.0379048 0.006277099 -0.01772925 0.2552324 0.4519714 -0.8547388 160 185 18 255 
0.07742175 -0.04398779 0.00402456 0.8681229 -0.2904411 -0.4025005 238 90 76 255 
-0.03858144 -0.04219854 0.01342954 -0.2248046 -0.9742353 0.01812585 98 3 129 255 
0.05534175 -0.03836997 0.03760602 0.7295861 -0.192766 0.6561596 220 102 211 255 
-0.05429408 0.0635685 -0.01553422 -0.4550073 0.7845517 0.4212446 69 227 181 255 
-0.01430319 -0.04947985 0.03828602 0.03951588 0.4120784 0.9102911 132 180 243 255 
0.05844617 -0.02435057 0.03505064 0.8082498 -0.03461673 0.5878214 230 123 202 255 
0.00194207 0.0050392 0.04280283 -0.04814127 0.30418 0.9513974 121 166 248 255 
-0.0329785 -0.04044623 0.02621192 -0.7277382 -0.5829989 0.3612609 34 53 173 255 
0.01191593 0.03030539 0.01687228 -0.1729318 0.9824287 0.07020373 105 252 136 255 
0.00544221 -0.02341784 0.05649325 -0.191446 -0.1853978 0.963834 103 103 250 255 
-0.0717576 0.04334591 0.01779071 -0.9981537 -0.0002158068 -0.06073922 0 127 119 255 
-0.06679472 0.0385069 0.00455759 -0.8468966 0.3652018 -0.3865148 19 174 78 255 
-0.04006777 -0.0585805 0.02295328 -0.6424873 0.5920955 -0.4864494 45 202 65 255 
-0.03438826 0.03404921 -0.00399204 0.575299 0.2918264 -0.7641128 200 164 30 255 
-0.04731516 -0.055966 0.00157418 -0.579533 0.7809178 -0.2330431 53 227 97 255 
0.04666617 0.0126861 -0.01050954 0.4641553 0.5450072 -0.6982313 186 196 38 255 
-0.05041323 0.041292 -0.00845908 -0.2308026 -0.6070789 -0.7603851 98 50 30 255 
-0.06667466 -0.01733499 0.01517434 -0.9943771 -0.05307676 0.09163582 0 120 139 255 
-0.02399088 -0.0005745441 0.04238343 0.1737003 0.1619321 0.9713939 149 148 251 255 
-0.02091724 -0.05387822 -0.01794258 -0.5675545 0.7718038 -0.2867069 55 225 90 255 
0.0283873 0.0133622 0.03979261 0.2798747 0.3026611 0.9110798 163 166 243 255 
-0.02124488 -0.05690111 0.04212956 0.2641144 0.3189571 0.9102252 161 168 243 255 
-0.03530898 0.003653899 0.04151669 0.04215384 0.4150869 0.9088047 132 180 243 255 
-0.04514665 -0.06405436 0.03977508 -0.8558792 -0.3241451 0.4029898 18 86 178 255 
-0.05035972 0.0690699 -0.02614426 0.2550582 0.9000193 0.353427 160 242 172 255 
-0.05908773 0.0704449 -0.04137317 -0.9379808 -0.2718194 -0.215189 7 92 100 255 
-0.04151122 0.0237357 0.04306268 0.7434583 0.1296643 0.6560922 222 144 211 255 
0.02942926 -0.0639696 0.00452751 0.1946483 -0.855166 0.4804198 152 18 188 255 
0.02627231 -8.963048e-05 -0.02229689 0.1263699 0.5608522 -0.8182148 143 199 23 255 
0.05864815 -0.009846665 -0.01254968 0.7392066 0.2948783 -0.605492 221 165 50 255 
-0.07171515 0.0170996 0.0308094 -0.8997346 -0.4301207 -0.07398608 12 72 118 255 
-0.04588565 -0.06497492 0.02941652 -0.7172945 -0.6798841 -0.1524674 36 40 108 255 
-0.03406648 -0.04004065 -0.00759922 -0.6723596 -0.3251631 -0.6649823 41 86 42 255 
0.0154082 -0.06159543 -0.02541287 0.1252134 -0.1264114 -0.9840436 143 111 2 255 
0.02649805 -0.02920813 -0.03352531 0.267609 -0.2581899 -0.9282905 161 94 9 255 
-0.03506586 -0.02191081 -0.01975548 -0.03723782 -0.4320693 -0.9010714 122 72 12 255 
