ply
format ascii 1.0
comment VCGLIB generated
element vertex 42
property float x
property float y
property float z
property float nx
property float ny
property float nz
element face 0
property list uchar int vertex_indices
end_header
0 1 0 8.925544e-09 1 0 
0.5 0.809017 0.309017 0.5000001 0.809017 0.309017 
0.5 0.809017 -0.309017 0.5000001 0.809017 -0.309017 
0 0.8506508 -0.5257311 0 0.8506508 -0.5257311 
0 0.8506508 0.5257311 0 0.8506508 0.5257311 
0.8506508 0.5257311 0 0.8506508 0.5257311 0 
-0.5 0.809017 -0.309017 -0.5000001 0.809017 -0.309017 
-0.5 0.809017 0.309017 -0.5000001 0.809017 0.309017 
-0.8506508 0.5257311 0 -0.8506508 0.5257311 0 
0 -1 0 8.925544e-09 -1 0 
0.5 -0.809017 -0.309017 0.5000001 -0.809017 -0.309017 
0.5 -0.809017 0.309017 0.5000001 -0.809017 0.309017 
0 -0.8506508 0.5257311 0 -0.8506508 0.5257311 
0 -0.8506508 -0.5257311 0 -0.8506508 -0.5257311 
0.8506508 -0.5257311 0 0.8506508 -0.5257311 0 
-0.5 -0.809017 0.309017 -0.5000001 -0.809017 0.309017 
-0.5 -0.809017 -0.309017 -0.5000001 -0.809017 -0.309017 
-0.8506508 -0.5257311 0 -0.8506508 -0.5257311 0 
1 0 0 1 0 -8.925544e-09 
0.809017 -0.309017 -0.5 0.809017 -0.309017 -0.5 
0.809017 0.309017 -0.5 0.809017 0.309017 -0.5000001 
0.5257311 0 -0.8506508 0.5257311 0 -0.8506508 
0.809017 0.309017 0.5 0.809017 0.309017 0.5 
0.809017 -0.309017 0.5 0.809017 -0.309017 0.5000001 
0.5257311 0 0.8506508 0.5257311 0 0.8506508 
-1 0 0 -1 0 8.925544e-09 
-0.809017 -0.309017 0.5 -0.809017 -0.309017 0.5 
-0.809017 0.309017 0.5 -0.809017 0.309017 0.5000001 
-0.5257311 0 0.8506508 -0.5257311 0 0.8506508 
-0.809017 0.309017 -0.5 -0.809017 0.309017 -0.5 
-0.809017 -0.309017 -0.5 -0.809017 -0.309017 -0.5000001 
-0.5257311 0 -0.8506508 -0.5257311 0 -0.8506508 
0 0 1 0 -8.925544e-09 1 
-0.309017 -0.5 0.809017 -0.309017 -0.5 0.809017 
0.309017 -0.5 0.809017 0.309017 -0.5 0.809017 
0.309017 0.5 0.809017 0.309017 0.5 0.809017 
-0.309017 0.5 0.809017 -0.309017 0.5 0.809017 
0 0 -1 0 8.925544e-09 -1 
-0.309017 0.5 -0.809017 -0.309017 0.5 -0.809017 
0.309017 0.5 -0.809017 0.309017 0.5 -0.809017 
0.309017 -0.5 -0.809017 0.309017 -0.5 -0.809017 
-0.309017 -0.5 -0.809017 -0.309017 -0.5 -0.809017 
