ply
format ascii 1.0
element vertex 256
property float x
property float y
property float z
end_header
0 0 1
0 0 1
0 0 1
0 0 1
-0 0 1
-0 0 1
-0 0 1
-0 0 1
-0 -0 1
-0 -0 1
-0 -0 1
-0 -0 1
0 -0 1
0 -0 1
0 -0 1
0 -0 1
0.195090323686599731 0 0.9807853102684021
0.180239945650100708 0.0746578425168991089 0.9807853102684021
0.137949690222740173 0.137949690222740173 0.9807853102684021
0.074657835066318512 0.180239960551261902 0.9807853102684021
-8.52766923742365179e-09 0.195090323686599731 0.9807853102684021
-0.074657827615737915 0.180239960551261902 0.9807853102684021
-0.137949690222740173 0.137949690222740173 0.9807853102684021
-0.180239945650100708 0.0746578499674797058 0.9807853102684021
-0.195090323686599731 -1.70553384748473036e-08 0.9807853102684021
-0.180239945650100708 -0.0746578425168991089 0.9807853102684021
-0.137949660420417786 -0.137949705123901367 0.9807853102684021
-0.0746578648686408997 -0.180239945650100708 0.9807853102684021
2.32642882735945022e-09 -0.195090323686599731 0.9807853102684021
0.0746578648686408997 -0.180239945650100708 0.9807853102684021
0.137949660420417786 -0.137949705123901367 0.9807853102684021
0.180239960551261902 -0.074657835066318512 0.9807853102684021
0.382683455944061279 0 0.923879504203796387
0.353553414344787598 0.146446630358695984 0.923879504203796387
0.270598053932189941 0.270598053932189941 0.923879504203796387
0.14644661545753479 0.353553414344787598 0.923879504203796387
-1.6727625506973709e-08 0.382683455944061279 0.923879504203796387
-0.146446600556373596 0.353553414344787598 0.923879504203796387
-0.270598053932189941 0.270598053932189941 0.923879504203796387
-0.353553414344787598 0.146446645259857178 0.923879504203796387
-0.382683455944061279 -3.3455251013947418e-08 0.923879504203796387
-0.353553414344787598 -0.146446630358695984 0.923879504203796387
-0.270598024129867554 -0.270598113536834717 0.923879504203796387
-0.146446675062179565 -0.353553414344787598 0.923879504203796387
4.56345450317030554e-09 -0.382683455944061279 0.923879504203796387
0.146446689963340759 -0.35355338454246521 0.923879504203796387
0.270598024129867554 -0.270598113536834717 0.923879504203796387
0.353553414344787598 -0.14644661545753479 0.923879504203796387
0.555570244789123535 0 0.831469595432281494
0.513279974460601807 0.212607547640800476 0.831469595432281494
0.39284747838973999 0.39284747838973999 0.831469595432281494
0.212607517838478088 0.513279974460601807 0.831469595432281494
-2.42847466580542459e-08 0.555570244789123535 0.831469595432281494
-0.212607502937316895 0.513279974460601807 0.831469595432281494
-0.39284747838973999 0.39284747838973999 0.831469595432281494
-0.513279974460601807 0.212607577443122864 0.831469595432281494
-0.555570244789123535 -4.85694933161084919e-08 0.831469595432281494
-0.513279974460601807 -0.212607547640800476 0.831469595432281494
-0.392847418785095215 -0.392847537994384766 0.831469595432281494
-0.212607607245445251 -0.513279974460601807 0.831469595432281494
6.62510890592216128e-09 -0.555570244789123535 0.831469595432281494
0.212607622146606445 -0.513279914855957031 0.831469595432281494
0.392847418785095215 -0.392847537994384766 0.831469595432281494
0.513279974460601807 -0.212607517838478088 0.831469595432281494
0.70710676908493042 0 0.70710676908493042
0.653281450271606445 0.270598053932189941 0.70710676908493042
0.499999970197677612 0.499999970197677612 0.70710676908493042
0.270598053932189941 0.653281509876251221 0.70710676908493042
-3.09086196637053945e-08 0.70710676908493042 0.70710676908493042
-0.270598024129867554 0.653281509876251221 0.70710676908493042
-0.499999970197677612 0.499999970197677612 0.70710676908493042
-0.653281450271606445 0.270598113536834717 0.70710676908493042
-0.70710676908493042 -6.1817239327410789e-08 0.70710676908493042
-0.653281450271606445 -0.270598053932189941 0.70710676908493042
-0.499999910593032837 -0.500000059604644775 0.70710676908493042
-0.270598143339157104 -0.653281450271606445 0.70710676908493042
8.43216341195329733e-09 -0.70710676908493042 0.70710676908493042
0.270598173141479492 -0.65328139066696167 0.70710676908493042
0.499999910593032837 -0.500000059604644775 0.70710676908493042
0.653281509876251221 -0.270598053932189941 0.70710676908493042
0.831469595432281494 0 0.555570244789123535
0.768177688121795654 0.318189650774002075 0.555570244789123535
0.587937772274017334 0.587937772274017334 0.555570244789123535
0.318189620971679688 0.76817774772644043 0.555570244789123535
-3.63446908124842594e-08 0.831469595432281494 0.555570244789123535
-0.318189620971679688 0.76817774772644043 0.555570244789123535
-0.587937772274017334 0.587937772274017334 0.555570244789123535
-0.768177688121795654 0.318189710378646851 0.555570244789123535
-0.831469595432281494 -7.26893816249685187e-08 0.555570244789123535
-0.768177688121795654 -0.318189650774002075 0.555570244789123535
-0.587937653064727783 -0.587937891483306885 0.555570244789123535
-0.318189769983291626 -0.768177688121795654 0.555570244789123535
9.91517534743024953e-09 -0.831469595432281494 0.555570244789123535
0.318189769983291626 -0.768177688121795654 0.555570244789123535
0.587937653064727783 -0.587937891483306885 0.555570244789123535
0.76817774772644043 -0.318189620971679688 0.555570244789123535
0.923879563808441162 0 0.382683426141738892
0.853553414344787598 0.353553414344787598 0.382683426141738892
0.653281509876251221 0.653281509876251221 0.382683426141738892
0.35355338454246521 0.853553473949432373 0.382683426141738892
-4.03840587637205317e-08 0.923879563808441162 0.382683426141738892
-0.353553354740142822 0.853553473949432373 0.382683426141738892
-0.653281509876251221 0.653281509876251221 0.382683426141738892
-0.853553414344787598 0.353553473949432373 0.382683426141738892
-0.923879563808441162 -8.07681175274410634e-08 0.382683426141738892
-0.853553414344787598 -0.353553414344787598 0.382683426141738892
-0.65328139066696167 -0.653281629085540771 0.382683426141738892
-0.353553533554077148 -0.853553414344787598 0.382683426141738892
1.10171534117853298e-08 -0.923879563808441162 0.382683426141738892
0.353553563356399536 -0.853553354740142822 0.382683426141738892
0.65328139066696167 -0.653281629085540771 0.382683426141738892
0.853553473949432373 -0.35355338454246521 0.382683426141738892
0.980785250663757324 0 0.195090353488922119
0.906127393245697021 0.375330299139022827 0.195090353488922119
0.693519890308380127 0.693519890308380127 0.195090353488922119
0.375330269336700439 0.906127452850341797 0.195090353488922119
-4.28714841405053448e-08 0.980785250663757324 0.195090353488922119
-0.375330239534378052 0.906127452850341797 0.195090353488922119
-0.693519890308380127 0.693519890308380127 0.195090353488922119
-0.906127393245697021 0.375330358743667603 0.195090353488922119
-0.980785250663757324 -8.57429682810106897e-08 0.195090353488922119
-0.906127393245697021 -0.375330299139022827 0.195090353488922119
-0.693519771099090576 -0.693520009517669678 0.195090353488922119
-0.375330418348312378 -0.906127393245697021 0.195090353488922119
1.16957474816103968e-08 -0.980785250663757324 0.195090353488922119
0.375330448150634766 -0.906127333641052246 0.195090353488922119
0.693519771099090576 -0.693520009517669678 0.195090353488922119
0.906127452850341797 -0.375330269336700439 0.195090353488922119
1 0 -4.37113882867379289e-08
0.923879504203796387 0.382683455944061279 -4.37113882867379289e-08
0.70710676908493042 0.70710676908493042 -4.37113882867379289e-08
0.382683426141738892 0.923879563808441162 -4.37113882867379289e-08
-4.37113882867379289e-08 1 -4.37113882867379289e-08
-0.382683396339416504 0.923879563808441162 -4.37113882867379289e-08
-0.70710676908493042 0.70710676908493042 -4.37113882867379289e-08
-0.923879504203796387 0.382683515548706055 -4.37113882867379289e-08
-1 -8.74227765734758577e-08 -4.37113882867379289e-08
-0.923879504203796387 -0.382683455944061279 -4.37113882867379289e-08
-0.707106649875640869 -0.707106888294219971 -4.37113882867379289e-08
-0.38268357515335083 -0.923879504203796387 -4.37113882867379289e-08
1.19248806385030548e-08 -1 -4.37113882867379289e-08
0.382683604955673218 -0.923879444599151611 -4.37113882867379289e-08
0.707106649875640869 -0.707106888294219971 -4.37113882867379289e-08
0.923879563808441162 -0.382683426141738892 -4.37113882867379289e-08
0.9807853102684021 0 -0.195090323686599731
0.906127452850341797 0.375330299139022827 -0.195090323686599731
0.693519949913024902 0.693519949913024902 -0.195090323686599731
0.375330269336700439 0.906127512454986572 -0.195090323686599731
-4.28714876932190236e-08 0.9807853102684021 -0.195090323686599731
-0.375330239534378052 0.906127512454986572 -0.195090323686599731
-0.693519949913024902 0.693519949913024902 -0.195090323686599731
-0.906127452850341797 0.375330358743667603 -0.195090323686599731
-0.9807853102684021 -8.57429753864380473e-08 -0.195090323686599731
-0.906127452850341797 -0.375330299139022827 -0.195090323686599731
-0.693519830703735352 -0.693520069122314453 -0.195090323686599731
-0.375330418348312378 -0.906127452850341797 -0.195090323686599731
1.16957474816103968e-08 -0.9807853102684021 -0.195090323686599731
0.375330448150634766 -0.906127393245697021 -0.195090323686599731
0.693519830703735352 -0.693520069122314453 -0.195090323686599731
0.906127512454986572 -0.375330269336700439 -0.195090323686599731
0.923879504203796387 0 -0.382683515548706055
0.853553354740142822 0.353553414344787598 -0.382683515548706055
0.653281450271606445 0.653281450271606445 -0.382683515548706055
0.35355338454246521 0.853553414344787598 -0.382683515548706055
-4.03840552110068529e-08 0.923879504203796387 -0.382683515548706055
-0.353553354740142822 0.853553414344787598 -0.382683515548706055
-0.653281450271606445 0.653281450271606445 -0.382683515548706055
-0.853553354740142822 0.353553444147109985 -0.382683515548706055
-0.923879504203796387 -8.07681104220137058e-08 -0.382683515548706055
-0.853553354740142822 -0.353553414344787598 -0.382683515548706055
-0.653281331062316895 -0.653281569480895996 -0.382683515548706055
-0.353553503751754761 -0.853553354740142822 -0.382683515548706055
1.10171525236069101e-08 -0.923879504203796387 -0.382683515548706055
0.353553533554077148 -0.853553295135498047 -0.382683515548706055
0.653281331062316895 -0.653281569480895996 -0.382683515548706055
0.853553414344787598 -0.35355338454246521 -0.382683515548706055
0.83146965503692627 0 -0.55557018518447876
0.76817774772644043 0.318189680576324463 -0.55557018518447876
0.587937831878662109 0.587937831878662109 -0.55557018518447876
0.318189650774002075 0.768177807331085205 -0.55557018518447876
-3.63446943651979382e-08 0.83146965503692627 -0.55557018518447876
-0.318189620971679688 0.768177807331085205 -0.55557018518447876
-0.587937831878662109 0.587937831878662109 -0.55557018518447876
-0.76817774772644043 0.318189740180969238 -0.55557018518447876
-0.83146965503692627 -7.26893887303958763e-08 -0.55557018518447876
-0.76817774772644043 -0.318189680576324463 -0.55557018518447876
-0.587937712669372559 -0.587937891483306885 -0.55557018518447876
-0.318189769983291626 -0.76817774772644043 -0.55557018518447876
9.91517623560866923e-09 -0.83146965503692627 -0.55557018518447876
0.318189799785614014 -0.76817774772644043 -0.55557018518447876
0.587937712669372559 -0.587937891483306885 -0.55557018518447876
0.768177807331085205 -0.318189650774002075 -0.55557018518447876
0.70710676908493042 0 -0.70710676908493042
0.653281450271606445 0.270598053932189941 -0.70710676908493042
0.499999970197677612 0.499999970197677612 -0.70710676908493042
0.270598053932189941 0.653281509876251221 -0.70710676908493042
-3.09086196637053945e-08 0.70710676908493042 -0.70710676908493042
-0.270598024129867554 0.653281509876251221 -0.70710676908493042
-0.499999970197677612 0.499999970197677612 -0.70710676908493042
-0.653281450271606445 0.270598113536834717 -0.70710676908493042
-0.70710676908493042 -6.1817239327410789e-08 -0.70710676908493042
-0.653281450271606445 -0.270598053932189941 -0.70710676908493042
-0.499999910593032837 -0.500000059604644775 -0.70710676908493042
-0.270598143339157104 -0.653281450271606445 -0.70710676908493042
8.43216341195329733e-09 -0.70710676908493042 -0.70710676908493042
0.270598173141479492 -0.65328139066696167 -0.70710676908493042
0.499999910593032837 -0.500000059604644775 -0.70710676908493042
0.653281509876251221 -0.270598053932189941 -0.70710676908493042
0.55557018518447876 0 -0.83146965503692627
0.513279914855957031 0.212607517838478088 -0.83146965503692627
0.392847448587417603 0.392847448587417603 -0.83146965503692627
0.212607502937316895 0.513279914855957031 -0.83146965503692627
-2.42847448816974065e-08 0.55557018518447876 -0.83146965503692627
-0.212607488036155701 0.513279914855957031 -0.83146965503692627
-0.392847448587417603 0.392847448587417603 -0.83146965503692627
-0.513279914855957031 0.212607547640800476 -0.83146965503692627
-0.55557018518447876 -4.85694897633948131e-08 -0.83146965503692627
-0.513279914855957031 -0.212607517838478088 -0.83146965503692627
-0.392847359180450439 -0.392847508192062378 -0.83146965503692627
-0.212607577443122864 -0.513279914855957031 -0.83146965503692627
6.62510801774374158e-09 -0.55557018518447876 -0.83146965503692627
0.212607607245445251 -0.513279855251312256 -0.83146965503692627
0.392847359180450439 -0.392847508192062378 -0.83146965503692627
0.513279914855957031 -0.212607502937316895 -0.83146965503692627
0.382683515548706055 0 -0.923879504203796387
0.353553444147109985 0.146446645259857178 -0.923879504203796387
0.270598113536834717 0.270598113536834717 -0.923879504203796387
0.146446645259857178 0.353553473949432373 -0.923879504203796387
-1.67276272833305484e-08 0.382683515548706055 -0.923879504203796387
-0.146446630358695984 0.353553473949432373 -0.923879504203796387
-0.270598113536834717 0.270598113536834717 -0.923879504203796387
-0.353553444147109985 0.146446675062179565 -0.923879504203796387
-0.382683515548706055 -3.34552545666610968e-08 -0.923879504203796387
-0.353553444147109985 -0.146446645259857178 -0.923879504203796387
-0.270598053932189941 -0.270598143339157104 -0.923879504203796387
-0.146446689963340759 -0.353553444147109985 -0.923879504203796387
4.56345539134872524e-09 -0.382683515548706055 -0.923879504203796387
0.146446704864501953 -0.353553444147109985 -0.923879504203796387
0.270598053932189941 -0.270598143339157104 -0.923879504203796387
0.353553473949432373 -0.146446645259857178 -0.923879504203796387
0.195090308785438538 0 -0.9807853102684021
0.180239930748939514 0.074657835066318512 -0.9807853102684021
0.137949675321578979 0.137949675321578979 -0.9807853102684021
0.074657827615737915 0.180239945650100708 -0.9807853102684021
-8.52766834924523209e-09 0.195090308785438538 -0.9807853102684021
-0.0746578201651573181 0.180239945650100708 -0.9807853102684021
-0.137949675321578979 0.137949675321578979 -0.9807853102684021
-0.180239930748939514 0.0746578425168991089 -0.9807853102684021
-0.195090308785438538 -1.70553366984904642e-08 -0.9807853102684021
-0.180239930748939514 -0.074657835066318512 -0.9807853102684021
-0.137949660420417786 -0.137949705123901367 -0.9807853102684021
-0.0746578574180603027 -0.180239930748939514 -0.9807853102684021
2.3264286053148453e-09 -0.195090308785438538 -0.9807853102684021
0.0746578648686408997 -0.180239930748939514 -0.9807853102684021
0.137949660420417786 -0.137949705123901367 -0.9807853102684021
0.180239945650100708 -0.074657827615737915 -0.9807853102684021
