ply
format ascii 1.0
element sh_coefficients 144
property uchar l
property char m
property list uchar float coefficients
element vertex 322
property float x
property float y
property float z
property uchar red
property uchar green
property uchar blue
property uchar alpha
end_header
0 0 3 1.72421479225158691 1.77397537231445312 1.78128588199615479
1 -1 3 0.0576908327639102936 0.560043632984161377 0.0127575760707259178
1 0 3 0.0108351167291402817 0.0351938903331756592 0.732915163040161133
1 1 3 0.467772185802459717 0.0851521119475364685 0.00326451286673545837
2 -2 3 -0.0202760230749845505 0.056454051285982132 0.00788401905447244644
2 -1 3 -0.00021301384549587965 0.0359532460570335388 0.00771504221484065056
2 0 3 0.0294934101402759552 0.0107037397101521492 -0.0096162501722574234
2 1 3 -0.0111905401572585106 -0.00663846591487526894 0.0412263274192810059
2 2 3 0.0157239437103271484 0.0543059632182121277 -0.0506415702402591705
3 -3 3 -0.0542924739420413971 0.0237409248948097229 -0.0430085472762584686
3 -2 3 -0.00414871238172054291 -0.0195799190551042557 -0.0464388243854045868
3 -1 3 -0.0101664206013083458 -0.0697167664766311646 -0.03777269646525383
3 0 3 0.0157192293554544449 0.00674766954034566879 -0.180410638451576233
3 1 3 -0.0363983400166034698 -0.0139879444614052773 0.00586679298430681229
3 2 3 -0.00235027330927550793 0.0184671338647603989 0.0513363778591156006
3 3 3 0.099214509129524231 0.0437619537115097046 0.0104853687807917595
4 -4 3 0.0172096230089664459 -0.0236323531717061996 0.0302980244159698486
4 -3 3 -0.00453291367739439011 -0.00108466786332428455 -0.0117355231195688248
4 -2 3 0.0328113213181495667 -0.0237328745424747467 -0.00434555113315582275
4 -1 3 0.00873879436403512955 -0.033644113689661026 0.0203627701848745346
4 0 3 0.00517787132412195206 0.0118114147335290909 -0.00315474113449454308
4 1 3 -0.000131988839711993933 0.00952905230224132538 -0.03432440385222435
4 2 3 -0.0193519126623868942 0.00146702548954635859 0.0442047454416751862
4 3 3 0.00911025144159793854 0.0297483969479799271 -0.0144661432132124901
4 4 3 0.00818399246782064438 0.0081990780308842659 0.0274023972451686859
5 -5 3 -0.0280550271272659302 0.0194417312741279602 0.000825837487354874611
5 -4 3 -0.0106472158804535866 0.0239459499716758728 -0.0155648263171315193
5 -3 3 0.00277251563966274261 -0.011247844435274601 0.0177556257694959641
5 -2 3 -0.00730833178386092186 -0.00675259856507182121 0.0198667887598276138
5 -1 3 -0.00784484390169382095 0.0636259987950325012 0.00350507698021829128
5 0 3 -0.000771073333453387022 -0.0116224177181720734 0.166006177663803101
5 1 3 0.0361716039478778839 -0.00939636770635843277 -0.0030522630549967289
5 2 3 -0.0051591675728559494 -0.013075568713247776 -0.0520549751818180084
5 3 3 -0.0505625270307064056 -0.046538177877664566 -0.0144882937893271446
5 4 3 0.00208299374207854271 -0.0406190156936645508 -0.00355287687852978706
5 5 3 -0.0061260606162250042 -0.0288308914750814438 -0.0170182865113019943
6 -6 3 0.012694159522652626 -0.0403578579425811768 0.00713676353916525841
6 -5 3 -0.00585706299170851707 -0.00137250556144863367 0.00247792596928775311
6 -4 3 0.00111559079959988594 0.0104330321773886681 -0.0242466479539871216
6 -3 3 0.00524197379127144814 0.00436662370339035988 0.0155373485758900642
6 -2 3 -0.0165307112038135529 0.0165187567472457886 0.00278005423024296761
6 -1 3 -0.00389168993569910526 0.0188583452254533768 -0.00594560150057077408
6 0 3 -0.0189153663814067841 0.021005682647228241 0.00656049745157361031
6 1 3 0.0083222072571516037 -0.000580090272706001997 0.012490113265812397
6 2 3 0.00184935447759926319 0.00439086463302373886 -0.0433384329080581665
6 3 3 -0.0140313394367694855 -0.0171653870493173599 0.0162635557353496552
6 4 3 0.00323944073170423508 0.0382201969623565674 -0.027025347575545311
6 5 3 -0.00364261609502136707 0.00618655327707529068 -0.00680506601929664612
6 6 3 0.00590306567028164864 0.0677617862820625305 0.00150881602894514799
7 -7 3 0.0336472727358341217 -0.0201497599482536316 0.0153106525540351868
7 -6 3 0.0195794440805912018 0.0322991125285625458 0.00136272178497165442
7 -5 3 0.014522504061460495 0.0320019647479057312 -0.00512052839621901512
7 -4 3 -0.00427580904215574265 -0.0114304134622216225 0.0325069986283779144
7 -3 3 0.0140451062470674515 0.0180435553193092346 -0.0078593892976641655
7 -2 3 0.00413638725876808167 0.0155490459874272346 0.0120708467438817024
7 -1 3 0.00869545713067054749 -0.0475912429392337799 0.0150223476812243462
7 0 3 -0.00486313411965966225 0.012622002512216568 -0.114690311253070831
7 1 3 -0.0456549525260925293 0.0107104033231735229 -0.0148492353036999702
7 2 3 -0.00618835212662816048 0.012574145570397377 0.0553794465959072113
7 3 3 0.0300605464726686478 0.0243639759719371796 0.00701733678579330444
7 4 3 -0.00533213373273611069 0.0187398865818977356 0.0130852023139595985
7 5 3 -0.0162132885307073593 0.0162939634174108505 -0.00216726795770227909
7 6 3 0.0036610383540391922 0.0129712363705039024 0.0149265127256512642
7 7 3 -0.0249240361154079437 -0.0360845066606998444 0.0121832583099603653
8 -8 3 -0.0351175926625728607 0.0362251214683055878 -0.00754209514707326889
8 -7 3 -0.0272041447460651398 -0.000917292316444218159 -0.027722114697098732
8 -6 3 -0.017897455021739006 0.0151642458513379097 0.00935140624642372131
8 -5 3 0.00294819683767855167 -0.0154467951506376266 -0.00882868655025959015
8 -4 3 -0.0113620143383741379 -0.0108898812904953957 0.00540620367974042892
8 -3 3 0.00225825724191963673 -0.00663668336346745491 -0.00797044485807418823
8 -2 3 -0.0165768526494503021 -0.00972127355635166168 -0.0115389171987771988
8 -1 3 -0.0104540707543492317 -0.00516838207840919495 -0.0314066894352436066
8 0 3 0.0165200494229793549 -0.038286205381155014 -0.00531623465940356255
8 1 3 -0.0152118382975459099 -0.00688743032515048981 0.019007733091711998
8 2 3 0.0226154942065477371 -0.00330656580626964569 0.0384352430701255798
8 3 3 0.0229212325066328049 0.00632236665114760399 0.00398579798638820648
8 4 3 0.0201566405594348907 -0.034335896372795105 0.0316477864980697632
8 5 3 0.0134436720982193947 -0.00751849543303251266 0.00853570457547903061
8 6 3 0.0171092692762613297 -0.0368344299495220184 -0.00103844271507114172
8 7 3 0.00417760433629155159 -0.0396543517708778381 -0.0151529237627983093
8 8 3 0.00359802879393100739 0.0224019680172204971 -0.00851079355925321579
9 -9 3 -0.0163589604198932648 -0.0316310375928878784 0.0133357718586921692
9 -8 3 -0.0194789934903383255 0.00839554332196712494 0.0109800258651375771
9 -7 3 -0.000692041940055787563 0.0232819505035877228 0.00693355873227119446
9 -6 3 -0.00237666931934654713 0.00934345927089452744 0.0055319126695394516
9 -5 3 0.00182122678961604834 -0.0329828374087810516 0.0242260098457336426
9 -4 3 0.0139791611582040787 0.0088680638000369072 -0.0288935955613851547
9 -3 3 -0.0197904426604509354 -0.00995445903390645981 0.00259019783698022366
9 -2 3 0.00326744280755519867 -0.0109081799164414406 -0.0322889275848865509
9 -1 3 -0.000327561021549627185 0.02439882792532444 -0.0218734946101903915
9 0 3 0.0157187841832637787 0.00033204074134118855 0.0505943819880485535
9 1 3 0.0419707410037517548 0.00342730875127017498 0.0242292508482933044
9 2 3 0.0101500805467367172 0.00182107568252831697 -0.0448903217911720276
9 3 3 -0.015072808600962162 -0.00215491023845970631 -0.00597697542980313301
9 4 3 -0.000655639159958809614 0.00515447044745087624 -0.0237412750720977783
9 5 3 0.0187139622867107391 -0.00633204216137528419 0.00579564599320292473
9 6 3 -0.00744181731715798378 0.00398922385647892952 0.00726395333185791969
9 7 3 0.0128546096384525299 0.0222539696842432022 0.00634241988882422447
9 8 3 -0.00528902653604745865 0.0411133766174316406 0.0182308051735162735
9 9 3 0.0365334264934062958 -0.0116080781444907188 -0.00152939371764659882
10 -10 3 0.00891271047294139862 -0.0064469887875020504 0.0106062153354287148
10 -9 3 0.0309763811528682709 -0.00128217879682779312 0.00639672251418232918
10 -8 3 -0.0102507574483752251 0.0407484695315361023 0.0179895628243684769
10 -7 3 -0.00770158274099230766 0.0208984147757291794 0.00457679759711027145
10 -6 3 -0.00356390303932130337 -0.0160317104309797287 -0.0126802138984203339
10 -5 3 -0.0134842591360211372 0.0111838439479470253 0.00297871488146483898
10 -4 3 0.0188212431967258453 -0.00871127936989068985 0.00789488852024078369
10 -3 3 -0.01700562983751297 0.00891154445707798004 0.0109634380787611008
10 -2 3 0.0535011552274227142 -0.0068144272081553936 0.0146129103377461433
10 -1 3 0.0348358266055583954 -1.7450371160521172e-05 0.0669702142477035522
10 0 3 0.00934574007987976074 0.032516036182641983 -0.00698708929121494293
10 1 3 0.0120198735967278481 0.00776964472606778145 -0.0401722230017185211
10 2 3 -0.0323162712156772614 0.00549251027405261993 -0.0299577787518501282
10 3 3 -0.031064918264746666 -0.0070000900886952877 -0.0300254002213478088
10 4 3 -0.0381350815296173096 0.017964506521821022 -0.0234528183937072754
10 5 3 -0.0127756074070930481 -0.00253630336374044418 -0.015631016343832016
10 6 3 -0.0287088640034198761 0.0154258077964186668 -0.0138838784769177437
10 7 3 -0.0116414427757263184 0.00908227171748876572 0.0111262854188680649
10 8 3 -0.0267520956695079803 -0.00954999867826700211 -0.0267625432461500168
10 9 3 0.000322327425237745047 -0.00532651506364345551 -0.0188875515013933182
10 10 3 0.0203539356589317322 -0.0341811142861843109 -0.0150037631392478943
11 -11 3 -0.0149716855958104134 0.0601910091936588287 0.000131437482195906341
11 -10 3 -0.0114404316991567612 -0.0171173010021448135 -0.0217782128602266312
11 -9 3 -0.0371869951486587524 -0.00129208865109831095 0.0157389920204877853
11 -8 3 -0.00655594374984502792 -0.00829007942229509354 -0.0273399297147989273
11 -7 3 -0.0122522395104169846 -0.0125374216586351395 -0.0144375842064619064
11 -6 3 6.07836727795074694e-06 -0.0329864285886287689 -0.0126910125836730003
11 -5 3 -0.0121485982090234756 0.0248969756066799164 -0.0312452279031276703
11 -4 3 -0.0297272205352783203 0.00105367554351687431 0.0393045023083686829
11 -3 3 0.0116920983418822289 0.00859003420919179916 -0.0112358620390295982
11 -2 3 -0.0132491709664463997 0.000985800637863576412 0.0315856859087944031
11 -1 3 -0.0281692054122686386 0.00283201015554368496 -0.00250770058482885361
11 0 3 -0.0171945840120315552 -0.0105148078873753548 0.00818503554910421371
11 1 3 -0.021020691841840744 -0.0173657555133104324 -0.0139379855245351791
11 2 3 -0.0203901715576648712 -0.00427807029336690903 0.0223827455192804337
11 3 3 -0.000626549997832626104 -0.00776361580938100815 0.0111059369519352913
11 4 3 0.0161470416933298111 -0.0191276222467422485 0.0329780653119087219
11 5 3 -0.000596405472606420517 0.00495687359943985939 0.015138464979827404
11 6 3 0.0196401048451662064 -0.0105432718992233276 -0.00183518172707408667
11 7 3 0.00722647085785865784 -0.000147604223457165062 0.00296359811909496784
11 8 3 0.0163950659334659576 -0.00182178011164069176 -0.0107187749817967415
11 9 3 -0.0104429526254534721 0.010718141682446003 0.0174657776951789856
11 10 3 0.0230172406882047653 -0.04447951540350914 0.00874151196330785751
11 11 3 -0.0320071689784526825 0.0064123133197426796 0.00231206393800675869
0.262865602970123291 0.951056480407714844 0.162459895014762878 152 186 153 255
0.525731086730957031 0.850650787353515625 0 163 182 137 255
0.262865602970123291 0.951056480407714844 -0.162459895014762878 151 188 121 255
0 1 0 138 191 139 255
0.5 0.809017002582550049 0.309017002582550049 159 178 160 255
0.5 0.809017002582550049 -0.309017002582550049 160 178 106 255
0 0.961938321590423584 -0.273266613483428955 135 186 108 255
0.259891897439956665 0.862668514251708984 -0.433888614177703857 149 178 91 255
0 0.850650787353515625 -0.525731086730957031 133 174 79 255
0.259891897439956665 0.862668514251708984 0.433888614177703857 149 179 170 255
0 0.961938321590423584 0.273266613483428955 138 186 163 255
0 0.850650787353515625 0.525731086730957031 138 177 177 255
0.702046394348144531 0.693780481815338135 -0.160622000694274902 170 175 120 255
0.702046394348144531 0.693780481815338135 0.160622000694274902 168 175 148 255
0.850650787353515625 0.525731086730957031 0 176 168 133 255
-0.262865602970123291 0.951056480407714844 -0.162459895014762878 118 188 120 255
-0.525731086730957031 0.850650787353515625 0 94 173 135 255
-0.262865602970123291 0.951056480407714844 0.162459895014762878 121 187 154 255
-0.5 0.809017002582550049 -0.309017002582550049 91 165 98 255
-0.5 0.809017002582550049 0.309017002582550049 100 173 164 255
-0.259891897439956665 0.862668514251708984 0.433888614177703857 122 177 173 255
-0.259891897439956665 0.862668514251708984 -0.433888614177703857 113 173 87 255
-0.702046394348144531 0.693780481815338135 0.160622000694274902 82 162 146 255
-0.702046394348144531 0.693780481815338135 -0.160622000694274902 76 156 109 255
-0.850650787353515625 0.525731086730957031 0 69 149 121 255
0.262865602970123291 -0.951056480407714844 -0.162459895014762878 140 54 116 255
0.525731086730957031 -0.850650787353515625 0 152 59 127 255
0.262865602970123291 -0.951056480407714844 0.162459895014762878 139 55 147 255
0 -1 0 123 52 129 255
0.5 -0.809017002582550049 -0.309017002582550049 151 65 105 255
0.5 -0.809017002582550049 0.309017002582550049 148 65 160 255
0 -0.961938321590423584 0.273266613483428955 123 57 154 255
0.259891897439956665 -0.862668514251708984 0.433888614177703857 137 65 169 255
0 -0.850650787353515625 0.525731086730957031 124 67 173 255
0.259891897439956665 -0.862668514251708984 -0.433888614177703857 139 66 96 255
0 -0.961938321590423584 -0.273266613483428955 123 59 107 255
0 -0.850650787353515625 -0.525731086730957031 124 69 90 255
0.702046394348144531 -0.693780481815338135 0.160622000694274902 160 73 142 255
0.702046394348144531 -0.693780481815338135 -0.160622000694274902 163 74 115 255
0.850650787353515625 -0.525731086730957031 0 172 87 126 255
-0.262865602970123291 -0.951056480407714844 0.162459895014762878 108 57 143 255
-0.525731086730957031 -0.850650787353515625 0 94 64 125 255
-0.262865602970123291 -0.951056480407714844 -0.162459895014762878 108 60 114 255
-0.5 -0.809017002582550049 0.309017002582550049 95 67 151 255
-0.5 -0.809017002582550049 -0.309017002582550049 98 70 104 255
-0.259891897439956665 -0.862668514251708984 -0.433888614177703857 110 68 97 255
-0.259891897439956665 -0.862668514251708984 0.433888614177703857 109 64 163 255
-0.702046394348144531 -0.693780481815338135 -0.160622000694274902 87 75 112 255
-0.702046394348144531 -0.693780481815338135 0.160622000694274902 83 74 137 255
-0.850650787353515625 -0.525731086730957031 0 75 84 123 255
0.951056480407714844 -0.162459895014762878 -0.262865602970123291 183 116 104 255
0.850650787353515625 0 -0.525731086730957031 179 132 79 255
0.951056480407714844 0.162459895014762878 -0.262865602970123291 186 144 105 255
1 0 0 189 132 129 255
0.809017002582550049 -0.309017002582550049 -0.5 170 103 86 255
0.809017002582550049 0.309017002582550049 -0.5 176 152 82 255
0.961938321590423584 0.273266613483428955 0 185 152 131 255
0.862668514251708984 0.433888614177703857 -0.259891897439956665 179 161 107 255
0.862668514251708984 -0.433888614177703857 -0.259891897439956665 173 93 107 255
0.961938321590423584 -0.273266613483428955 0 181 108 127 255
0.693780481815338135 0.160622000694274902 -0.702046394348144531 166 142 64 255
0.693780481815338135 -0.160622000694274902 -0.702046394348144531 164 117 69 255
0.525731086730957031 0 -0.850650787353515625 155 130 56 255
0.951056480407714844 0.162459895014762878 0.262865602970123291 184 147 155 255
0.850650787353515625 0 0.525731086730957031 175 138 179 255
0.951056480407714844 -0.162459895014762878 0.262865602970123291 182 122 153 255
0.809017002582550049 0.309017002582550049 0.5 170 157 176 255
0.809017002582550049 -0.309017002582550049 0.5 169 114 175 255
0.862668514251708984 -0.433888614177703857 0.259891897439956665 172 98 152 255
0.862668514251708984 0.433888614177703857 0.259891897439956665 175 163 156 255
0.693780481815338135 -0.160622000694274902 0.702046394348144531 163 126 190 255
0.693780481815338135 0.160622000694274902 0.702046394348144531 163 150 192 255
0.525731086730957031 0 0.850650787353515625 155 140 198 255
-0.951056480407714844 -0.162459895014762878 0.262865602970123291 63 112 143 255
-0.850650787353515625 0 0.525731086730957031 73 129 170 255
-0.951056480407714844 0.162459895014762878 0.262865602970123291 64 133 145 255
-1 0 0 58 123 120 255
-0.809017002582550049 -0.309017002582550049 0.5 76 102 164 255
-0.809017002582550049 0.309017002582550049 0.5 79 145 170 255
-0.961938321590423584 0.273266613483428955 0 61 136 117 255
-0.862668514251708984 0.433888614177703857 0.259891897439956665 73 148 149 255
-0.862668514251708984 -0.433888614177703857 0.259891897439956665 71 91 143 255
-0.961938321590423584 -0.273266613483428955 0 64 101 122 255
-0.693780481815338135 0.160622000694274902 0.702046394348144531 89 141 185 255
-0.693780481815338135 -0.160622000694274902 0.702046394348144531 86 119 182 255
-0.525731086730957031 0 0.850650787353515625 101 135 195 255
-0.951056480407714844 0.162459895014762878 -0.262865602970123291 63 132 96 255
-0.850650787353515625 0 -0.525731086730957031 71 126 78 255
-0.951056480407714844 -0.162459895014762878 -0.262865602970123291 63 111 100 255
-0.809017002582550049 0.309017002582550049 -0.5 74 139 79 255
-0.809017002582550049 -0.309017002582550049 -0.5 78 99 86 255
-0.862668514251708984 -0.433888614177703857 -0.259891897439956665 75 89 104 255
-0.862668514251708984 0.433888614177703857 -0.259891897439956665 66 141 95 255
-0.693780481815338135 -0.160622000694274902 -0.702046394348144531 87 112 70 255
-0.693780481815338135 0.160622000694274902 -0.702046394348144531 84 134 67 255
-0.525731086730957031 0 -0.850650787353515625 97 126 59 255
-0.162459895014762878 -0.262865602970123291 0.951056480407714844 122 117 200 255
0 -0.525731086730957031 0.850650787353515625 129 98 194 255
0.162459895014762878 -0.262865602970123291 0.951056480407714844 138 119 201 255
0 0 1 132 138 204 255
-0.309017002582550049 -0.5 0.809017002582550049 112 96 190 255
0.309017002582550049 -0.5 0.809017002582550049 142 102 193 255
0.273266613483428955 0 0.961938321590423584 144 140 202 255
0.433888614177703857 -0.259891897439956665 0.862668514251708984 150 120 197 255
-0.433888614177703857 -0.259891897439956665 0.862668514251708984 106 114 194 255
-0.273266613483428955 0 0.961938321590423584 117 137 202 255
0.160622000694274902 -0.702046394348144531 0.693780481815338135 133 83 185 255
-0.160622000694274902 -0.702046394348144531 0.693780481815338135 117 81 183 255
0.162459895014762878 0.262865602970123291 0.951056480407714844 140 152 198 255
0 0.525731086730957031 0.850650787353515625 133 161 192 255
-0.162459895014762878 0.262865602970123291 0.951056480407714844 124 150 199 255
0.309017002582550049 0.5 0.809017002582550049 147 162 190 255
-0.309017002582550049 0.5 0.809017002582550049 117 159 191 255
-0.433888614177703857 0.259891897439956665 0.862668514251708984 108 148 195 255
0.433888614177703857 0.259891897439956665 0.862668514251708984 150 153 195 255
-0.160622000694274902 0.702046394348144531 0.693780481815338135 127 168 185 255
0.160622000694274902 0.702046394348144531 0.693780481815338135 143 170 184 255
-0.162459895014762878 0.262865602970123291 -0.951056480407714844 116 140 50 255
0 0.525731086730957031 -0.850650787353515625 126 155 55 255
0.162459895014762878 0.262865602970123291 -0.951056480407714844 134 142 49 255
0 0 -1 124 128 48 255
-0.309017002582550049 0.5 -0.809017002582550049 107 150 58 255
0.309017002582550049 0.5 -0.809017002582550049 145 157 58 255
0.273266613483428955 0 -0.961938321590423584 140 129 50 255
0.433888614177703857 0.259891897439956665 -0.862668514251708984 150 144 54 255
-0.433888614177703857 0.259891897439956665 -0.862668514251708984 101 140 57 255
-0.273266613483428955 0 -0.961938321590423584 111 127 52 255
0.160622000694274902 0.702046394348144531 -0.693780481815338135 140 166 66 255
-0.160622000694274902 0.702046394348144531 -0.693780481815338135 118 161 63 255
0.162459895014762878 -0.262865602970123291 -0.951056480407714844 132 110 58 255
0 -0.525731086730957031 -0.850650787353515625 124 93 69 255
-0.162459895014762878 -0.262865602970123291 -0.951056480407714844 116 110 58 255
0.309017002582550049 -0.5 -0.809017002582550049 139 93 70 255
-0.309017002582550049 -0.5 -0.809017002582550049 110 94 71 255
-0.433888614177703857 -0.259891897439956665 -0.862668514251708984 104 109 64 255
0.433888614177703857 -0.259891897439956665 -0.862668514251708984 147 110 62 255
-0.160622000694274902 -0.702046394348144531 -0.693780481815338135 116 81 81 255
0.160622000694274902 -0.702046394348144531 -0.693780481815338135 133 80 79 255
0.587785303592681885 0.425325393676757812 0.688190877437591553 158 162 186 255
0.688190877437591553 0.587785303592681885 0.425325393676757812 165 169 169 255
0.425325393676757812 0.688190877437591553 0.587785303592681885 154 171 179 255
-0.688190877437591553 0.587785303592681885 0.425325393676757812 88 159 168 255
-0.587785303592681885 0.425325393676757812 0.688190877437591553 97 154 185 255
-0.425325393676757812 0.688190877437591553 0.587785303592681885 108 167 180 255
0.688190877437591553 0.587785303592681885 -0.425325393676757812 169 167 93 255
0.587785303592681885 0.425325393676757812 -0.688190877437591553 160 155 66 255
0.425325393676757812 0.688190877437591553 -0.587785303592681885 153 168 75 255
-0.587785303592681885 0.425325393676757812 -0.688190877437591553 90 144 66 255
-0.688190877437591553 0.587785303592681885 -0.425325393676757812 78 147 83 255
-0.425325393676757812 0.688190877437591553 -0.587785303592681885 97 155 69 255
0.688190877437591553 -0.587785303592681885 0.425325393676757812 159 87 169 255
0.587785303592681885 -0.425325393676757812 0.688190877437591553 155 107 188 255
0.425325393676757812 -0.688190877437591553 0.587785303592681885 144 82 180 255
-0.587785303592681885 -0.425325393676757812 0.688190877437591553 93 96 179 255
-0.688190877437591553 -0.587785303592681885 0.425325393676757812 84 81 157 255
-0.425325393676757812 -0.688190877437591553 0.587785303592681885 101 76 172 255
0.587785303592681885 -0.425325393676757812 -0.688190877437591553 155 96 75 255
0.688190877437591553 -0.587785303592681885 -0.425325393676757812 162 81 95 255
0.425325393676757812 -0.688190877437591553 -0.587785303592681885 147 78 85 255
-0.688190877437591553 -0.587785303592681885 -0.425325393676757812 89 82 97 255
-0.587785303592681885 -0.425325393676757812 -0.688190877437591553 95 95 78 255
-0.425325393676757812 -0.688190877437591553 -0.587785303592681885 103 80 88 255
-0.391169637441635132 -0.184980735182762146 -0.137112483382225037 62 38 63 255
-0.0043312758207321167 -0.337164461612701416 -0.290680795907974243 23 109 55 255
0.106873847544193268 -0.236711069941520691 0.394611984491348267 91 108 248 255
0.261747807264328003 0.047589670866727829 0.366851985454559326 147 227 203 255
0.0808678492903709412 -0.230829983949661255 -0.399366766214370728 109 95 5 255
-0.237819120287895203 -0.390900075435638428 -0.123622208833694458 53 172 33 255
-0.489748179912567139 0.0112745612859725952 0.196244403719902039 29 130 209 255
-0.35388907790184021 0.550077617168426514 0.0518316552042961121 129 254 121 255
0.16434866189956665 -0.502350986003875732 0.340499222278594971 138 6 166 255
-0.0605448558926582336 -0.18008837103843689 -0.253111898899078369 13 95 80 255
0.411218166351318359 -0.360382020473480225 -0.288491338491439819 181 64 30 255
-0.468261301517486572 0.401436716318130493 0.339254051446914673 72 198 217 255
-0.167962968349456787 -0.514541327953338623 -0.0799708366394042969 131 0 125 255
0.0299490634351968765 0.193815663456916809 -0.207536801695823669 116 213 34 255
0.28097224235534668 -0.215667739510536194 0.411463409662246704 150 122 252 255
-0.567190885543823242 0.281570285558700562 0.00737204402685165405 8 135 82 255
-0.310502409934997559 0.172996670007705688 -0.190404549241065979 78 183 23 255
0.335948735475540161 0.196869507431983948 -0.214559227228164673 162 187 20 255
0.152395561337471008 -0.473295807838439941 0.0630768612027168274 128 0 128 255
-0.539201736450195312 0.396903246641159058 0.254978030920028687 10 161 164 255
-0.354950904846191406 -0.0435484014451503754 0.305960893630981445 70 128 241 255
-0.442866593599319458 -0.1896982342004776 0.113045692443847656 36 43 157 255
-0.480503380298614502 -0.103850901126861572 -0.0930856913328170776 20 76 79 255
-0.256408184766769409 -0.386390805244445801 0.245840609073638916 88 248 138 255
-0.21518293023109436 0.617681443691253662 -0.0570065081119537354 50 226 150 255
-0.0531445182859897614 -0.514529824256896973 -0.330423891544342041 117 12 74 255
0.69372856616973877 -0.402164727449417114 0.0183950904756784439 211 31 117 255
0.194807499647140503 -0.304688096046447754 0.396869510412216187 117 92 249 255
-0.0917373970150947571 0.272770196199417114 0.139034748077392578 133 239 188 255
-0.0389956161379814148 -0.417798995971679688 -0.316154152154922485 110 203 26 255
0.62080758810043335 -0.200439170002937317 -0.063967578113079071 233 141 57 255
0.138435378670692444 -0.473837524652481079 -0.208136036992073059 117 23 200 255
0.113428227603435516 0.232802987098693848 0.242751970887184143 94 208 220 255
-0.170621588826179504 -0.332393437623977661 0.254357635974884033 47 135 226 255
0.433351039886474609 -0.223690718412399292 -0.300673007965087891 204 111 27 255
0.106003560125827789 -0.501807272434234619 -0.298712939023971558 151 59 22 255
0.469534426927566528 -0.360654950141906738 0.264476269483566284 188 85 231 255
-0.318132996559143066 -0.232680469751358032 0.204321011900901794 86 26 193 255
0.180646792054176331 0.0728642120957374573 0.312868237495422363 124 218 216 255
0.382522910833358765 0.2981739342212677 0.127027615904808044 178 239 161 255
0.153694063425064087 -0.064343087375164032 -0.403321802616119385 145 151 3 255
0.542106091976165771 -0.448062390089035034 -0.096592336893081665 156 45 34 255
0.121740199625492096 0.149423569440841675 -0.24736061692237854 116 196 20 255
0.210771247744560242 0.112470932304859161 -0.267324388027191162 147 154 4 255
0.606130003929138184 -0.459182828664779663 0.0054016956128180027 185 14 118 255
-0.39127388596534729 0.493701338768005371 -0.413341820240020752 61 25 89 255
0.692523062229156494 -0.392315328121185303 0.111995488405227661 207 39 173 255
0.402708619832992554 -0.119997069239616394 -0.313239991664886475 183 134 12 255
0.0506546162068843842 0.573838353157043457 -0.112967967987060547 204 67 209 255
-0.366299867630004883 -0.498472124338150024 0.0324211381375789642 33 90 204 255
0.669393301010131836 -0.271218329668045044 -0.102304510772228241 151 184 16 255
-0.105772927403450012 -0.49090149998664856 0.0215417053550481796 76 36 201 255
0.416547626256942749 -0.494282007217407227 0.00412230566143989563 76 16 163 255
-0.321287423372268677 0.0435176752507686615 0.297606050968170166 99 160 247 255
0.521951854228973389 -0.0786095336079597473 0.289540112018585205 208 124 225 255
0.220188498497009277 -0.391050547361373901 -0.332222700119018555 142 61 19 255
0.423927396535873413 0.246346697211265564 0.196073770523071289 183 217 199 255
0.634128749370574951 -0.388273686170578003 -0.105836875736713409 184 58 37 255
-0.411075621843338013 -0.177171111106872559 0.200862854719161987 49 49 190 255
-0.365058571100234985 -0.513564765453338623 -0.0739175751805305481 103 2 123 255
0.384218513965606689 -0.171704813838005066 0.378067761659622192 181 97 239 255
0.130009859800338745 0.255101561546325684 -0.156579211354255676 98 224 50 255
0.457907885313034058 -0.193561762571334839 0.314761340618133545 209 101 221 255
0.522077739238739014 0.128866910934448242 0.205086156725883484 217 179 201 255
-0.243819549679756165 -0.157616287469863892 0.292170912027359009 120 65 238 255
-0.485618561506271362 0.00401367573067545891 -0.125941380858421326 25 136 51 255
-0.31915321946144104 0.152413100004196167 0.254291772842407227 140 144 253 255
0.627348840236663818 -0.189392223954200745 0.123545467853546143 230 170 189 255
-0.0394645966589450836 -0.497277408838272095 -0.239046052098274231 151 33 210 255
-0.227304756641387939 -0.514714360237121582 0.0493180491030216217 135 0 124 255
0.353817909955978394 0.320090264081954956 -0.0119692282751202583 170 246 113 255
-0.439088881015777588 0.73282325267791748 -0.508520662784576416 10 146 80 255
0.584953248500823975 -0.17543281614780426 -0.15289558470249176 232 128 55 255
0.725099861621856689 -0.218674629926681519 0.13604426383972168 208 184 208 255
-0.418874651193618774 0.491360723972320557 0.268159419298171997 110 230 201 255
-0.31013604998588562 0.61811143159866333 -0.588251829147338867 169 63 25 255
0.619028985500335693 -0.0662498325109481812 -0.0905936360359191895 249 124 91 255
-0.0730340033769607544 0.170440658926963806 0.232360005378723145 125 199 232 255
0.0772142112255096436 -0.464871436357498169 0.270130902528762817 130 0 137 255
-0.566644191741943359 0.190456897020339966 0.07564593106508255 22 55 133 255
0.425927519798278809 -0.43417656421661377 -0.198491230607032776 229 60 90 255
-0.23083379864692688 -0.0650110170245170593 0.321646898984909058 118 123 254 255
0.496889054775238037 -0.0568690747022628784 -0.249506279826164246 195 140 20 255
0.115494586527347565 -0.355900198221206665 -0.352331489324569702 113 70 14 255
0.0186425354331731796 0.167518883943557739 0.254121899604797363 94 200 226 255
0.525824606418609619 -0.489849060773849487 0.0691263005137443542 164 7 148 255
0.0541530102491378784 -0.472876012325286865 0.169919639825820923 129 0 135 255
0.0465213954448699951 -0.474048465490341187 -0.0330172553658485413 130 0 124 255
-0.314743995666503906 0.518043279647827148 -0.352142542600631714 235 65 99 255
0.0257903002202510834 -0.216530725359916687 0.320308089256286621 22 92 191 255
-0.0341558977961540222 -0.137347057461738586 -0.357309788465499878 24 110 54 255
-0.430991947650909424 0.540982961654663086 -0.00296943914145231247 97 250 111 255
-0.0134546030312776566 0.227467700839042664 0.187467113137245178 101 226 203 255
0.593963801860809326 0.0579229258000850677 0.138706520199775696 242 168 163 255
-0.250916510820388794 -0.494453996419906616 0.330713957548141479 119 53 230 255
0.615393459796905518 -0.382497221231460571 0.200110286474227905 171 68 231 255
0.235255703330039978 0.263487190008163452 0.229703649878501892 131 217 218 255
0.157931968569755554 0.0223327968269586563 0.400824874639511108 116 208 224 255
0.218711435794830322 0.200773879885673523 -0.22136843204498291 108 205 28 255
-0.295428603887557983 -0.420823991298675537 0.0357208400964736938 77 227 189 255
0.297653168439865112 0.298778653144836426 -0.117442280054092407 141 236 63 255
0.206769198179244995 -0.148729786276817322 0.437910914421081543 130 130 254 255
0.232307255268096924 -0.498405575752258301 -0.000431760563515126705 54 24 111 255
0.325394392013549805 -0.29250103235244751 0.383782505989074707 177 104 242 255
-0.474190860986709595 -0.168191567063331604 0.0247718058526515961 21 57 131 255
0.023174704983830452 0.0263830572366714478 0.313845574855804443 76 172 235 255
0.592220544815063477 0.0404993481934070587 -0.106741286814212799 237 166 76 255
0.251103192567825317 -0.070693477988243103 -0.374877005815505981 173 145 9 255
-0.452464371919631958 0.116150341928005219 0.206255123019218445 29 136 208 255
0.229482010006904602 -0.396490424871444702 0.35469973087310791 118 33 212 255
0.336875736713409424 -0.0418668389320373535 -0.340312778949737549 179 147 12 255
0.0255463514477014542 0.790425360202789307 -0.172501400113105774 111 235 192 255
-0.457786917686462402 0.375657647848129272 -0.108240306377410889 52 149 26 255
-0.536162793636322021 0.0365566201508045197 0.110933549702167511 5 142 160 255
-0.408910036087036133 0.057451881468296051 0.260876566171646118 57 158 229 255
-0.232702597975730896 0.495103567838668823 0.145577490329742432 246 154 164 255
-0.0574190914630889893 -0.508121967315673828 0.248508259654045105 125 0 131 255
-0.394939601421356201 0.536618232727050781 0.184866458177566528 117 249 163 255
0.0592696964740753174 -0.136701270937919617 -0.411416798830032349 116 122 0 255
-0.150359734892845154 -0.169046387076377869 -0.227493464946746826 104 91 7 255
-0.0548420660197734833 0.669272363185882568 -0.206421270966529846 64 140 17 255
0.407343685626983643 0.0320514440536499023 -0.270164042711257935 163 165 11 255
0.443500876426696777 0.276780664920806885 0.0626187324523925781 198 233 132 255
-0.3957480788230896 0.0428578071296215057 -0.197607502341270447 71 158 17 255
-0.180676698684692383 0.254739284515380859 0.178301215171813965 224 147 208 255
-0.215464875102043152 -0.507025778293609619 0.228709042072296143 129 0 130 255
-0.357467323541641235 0.708666324615478516 -0.466338545083999634 198 221 176 255
-0.180814921855926514 0.163313031196594238 -0.22408507764339447 134 183 12 255
-0.344619870185852051 0.527868568897247314 -0.498755395412445068 182 25 74 255
-0.164371088147163391 0.140934556722640991 0.264494240283966064 129 199 232 255
0.440736889839172363 -0.46104663610458374 0.250546962022781372 220 52 173 255
0.572335958480834961 -0.286615550518035889 -0.128023192286491394 234 90 68 255
0.427798748016357422 -0.486999571323394775 -0.0903753936290740967 189 28 76 255
0.366265058517456055 -0.286789208650588989 -0.321074485778808594 166 117 6 255
-0.562761008739471436 0.30098453164100647 0.244551315903663635 5 162 134 255
0.0107510574162006378 -0.0342317558825016022 -0.376994669437408447 61 190 38 255
-0.321627914905548096 -0.0230885948985815048 -0.236017137765884399 95 136 4 255
0.260084837675094604 -0.505583763122558594 0.0915656983852386475 89 8 153 255
-0.0206856150180101395 0.00292698387056589127 -0.288808286190032959 73 178 24 255
-0.380750030279159546 0.202314257621765137 -0.141325533390045166 83 130 7 255
0.591762840747833252 -0.0205819699913263321 0.18747103214263916 238 145 187 255
-0.212380453944206238 0.392124921083450317 0.133375823497772217 233 185 167 255
-0.566398799419403076 0.220141991972923279 0.285759091377258301 13 89 170 255
0.607519447803497314 0.0704428404569625854 0.0101206544786691666 246 174 129 255
-0.235913395881652832 0.188421308994293213 0.230523169040679932 163 163 244 255
0.288425356149673462 -0.0818709954619407654 0.418353050947189331 162 117 249 255
-0.524386465549468994 0.113901026546955109 0.0463547520339488983 6 167 125 255
0.224711969494819641 -0.289633810520172119 -0.362039774656295776 155 93 7 255
0.208513751626014709 0.315936535596847534 -0.0814864560961723328 116 247 85 255
0.497092068195343018 0.0665254145860671997 0.270146638154983521 202 188 210 255
0.286338001489639282 0.33517870306968689 0.0739636793732643127 135 254 140 255
-0.125596374273300171 0.64860457181930542 -0.0437337905168533325 141 186 239 255
-0.315077662467956543 0.627297163009643555 -0.357992947101593018 238 187 142 255
-0.326640456914901733 -0.270252585411071777 -0.0702414289116859436 86 11 92 255
-0.51351398229598999 0.299964547157287598 0.349722027778625488 35 136 215 255
0.183510348200798035 -0.202552363276481628 -0.384390115737915039 156 105 5 255
-0.306920021772384644 -0.457714378833770752 -0.136526733636856079 80 181 21 255
0.227824002504348755 0.0202899053692817688 -0.350705474615097046 151 215 38 255
-0.4922160804271698 0.255722761154174805 -0.104608125984668732 61 105 20 255
0.00672635715454816818 -0.132044792175292969 0.34791681170463562 23 81 185 255
